# .PCD v0.7 - Point Cloud Data file format
VERSION 0.7
FIELDS x y z
SIZE 4 4 4
TYPE F F F
COUNT 1 1 1
WIDTH 1835
HEIGHT 1
VIEWPOINT 0 0 0 1 0 0 0
POINTS 1835
DATA ascii
136.39999 -3 848.65002
136.89999 -3 848.64001
137.39 -3 848.63
138.38 -3 848.60999
144.09 -2.98 848.48999
147.31 -2.97 848.42999
150.84 -2.9400001 848.37
156.12 -2.9200001 848.28003
164.66 -2.9000001 848.12
169.42999 -2.8800001 848.03998
170.69 -2.8800001 848.04999
171.19 -2.8800001 848.01001
183.89999 -2.8499999 847.78998
208.57001 -2.79 847.37
-31.040001 -3.4100001 851.54999
-17.33 -3.5 851.34003
4.4699998 -3.21 850.95001
88.410004 -2.9400001 849.46002
90.029999 -2.9000001 849.42999
96 -2.8599999 849.34003
100.48 -2.8299999 849.25
110.18 -2.77 849.08002
114.65 -2.74 849.01001
115.39 -2.74 848.97998
119.62 -2.71 848.91998
119.87 -2.71 848.90002
121.26 -2.8 848.88
123.24 -2.8 848.84998
141.11 -2.74 848.52002
142.10001 -2.74 848.5
158.37 -2.6700001 848.21002
163.89999 -2.6500001 848.13
166.41 -2.6400001 848.08002
167.17 -2.6400001 848.09003
168.17 -2.6400001 848.06
177.21001 -2.6099999 847.89001
181.35001 -2.6099999 847.84003
186.95 -2.5999999 847.71997
188.22 -2.5899999 847.71002
192.28999 -2.5799999 847.63
205.25999 -2.55 847.39001
209.24001 -3.24 847.37
-73.589996 -3.5 852.29999
-69.690002 -3.45 852.22998
-69.43 -3.4400001 852.23999
-67.089996 -3.4100001 852.17999
-61.900002 -3.3499999 852.09998
-58.98 -3.48 852.03998
-56.689999 -3.49 852.03003
-53.169998 -3.45 851.94
-52.41 -3.4400001 851.92999
-49.400002 -3.4000001 851.89001
-47.630001 -3.3800001 851.85999
-47.130001 -3.3699999 851.85999
-37.32 -3.24 851.65002
-34.049999 -3.2 851.60999
-17.33 -3.25 851.29999
-3.52 -3.1300001 851.08002
104.21 -2.5599999 849.15002
105.45 -2.5599999 849.13
108.18 -2.54 849.07001
108.93 -2.53 849.09003
117.13 -2.48 848.92999
118.13 -2.47 848.92999
136.64 -2.51 848.59003
137.88 -2.51 848.56
138.38 -2.51 848.54999
141.11 -2.5 848.51001
142.84 -2.49 848.47998
146.56 -2.48 848.40997
156.11 -2.4300001 848.25
156.86 -2.4300001 848.23999
160.64 -2.4100001 848.19
170.92999 -2.3800001 848.01001
171.67999 -2.3800001 847.96997
181.85001 -2.3599999 847.78003
188.98 -2.3499999 847.66998
-101.41 -3.45 852.77002
-101.15 -3.45 852.77002
-98.790001 -3.4200001 852.76001
-94.589996 -3.3800001 852.67999
-94.07 -3.3699999 852.65997
-90.919998 -3.3399999 852.60999
-89.949997 -3.4200001 852.59003
-71.25 -3.21 852.22998
-69.43 -3.1900001 852.22998
-68.139999 -3.1700001 852.21002
-63.720001 -3.1199999 852.12
-62.16 -3.0999999 852.09998
-56.439999 -3.24 851.98999
-52.919998 -3.1900001 851.92999
-50.150002 -3.1600001 851.85999
-49.900002 -3.1500001 851.89001
-34.049999 -2.95 851.58002
-29.389999 -3.0899999 851.53003
-26.620001 -3.0799999 851.47998
-24.360001 -3.0599999 851.44
-19.84 -3.02 851.34998
-16.08 -2.99 851.28998
-15.07 -2.98 851.23999
-14.82 -2.98 851.25
-7.29 -2.9200001 851.09998
-6.0300002 -2.9100001 851.09998
-0.029999999 -2.75 850.98999
1.21 -2.74 850.96997
60.310001 -2.5799999 849.94
82.889999 -2.47 849.51001
85.150002 -2.46 849.47998
96.5 -2.3699999 849.28998
98.730003 -2.3499999 849.23999
100.72 -2.3399999 849.20001
107.93 -2.29 849.07001
115.89 -2.24 848.94
117.88 -2.23 848.90997
122.99 -2.3 848.83002
127.95 -2.29 848.71997
128.7 -2.29 848.71997
131.42999 -2.28 848.65002
134.41 -2.27 848.63
136.64 -2.26 848.58002
136.89 -2.26 848.59003
142.84 -2.25 848.46002
143.83 -2.24 848.46002
145.82001 -2.24 848.41998
147.8 -2.23 848.39001
155.35001 -2.1900001 848.22998
159.12 -2.1700001 848.19
178.46001 -2.1199999 847.85999
180.58 -2.1500001 847.78998
181.34 -2.1199999 847.78003
192.28 -2.0899999 847.59998
208.87 -3.4300001 847.40002
209.83 -3.4300001 847.40002
-151.85001 -3.5 853.65002
-136.88 -3.45 853.41998
-135.53999 -3.4300001 853.39001
-129.39 -3.3499999 853.28003
-127.25 -3.3199999 853.23999
-126.45 -3.3099999 853.21002
-103.25 -3.22 852.82001
-92.230003 -3.0999999 852.59003
-91.709999 -3.0899999 852.60999
-86.07 -3.1500001 852.52002
-83.730003 -3.1199999 852.44
-81.389999 -3.0899999 852.41998
-67.610001 -2.9100001 852.15997
-63.98 -2.8699999 852.10999
-62.16 -2.8399999 852.08002
-57.700001 -3 852
-52.919998 -2.9400001 851.91998
-52.41 -2.9400001 851.91998
-51.650002 -2.9300001 851.87
-50.150002 -2.9100001 851.85999
-46.380001 -2.8599999 851.79999
-42.349998 -2.8099999 851.71997
-40.080002 -2.78 851.65997
-34.299999 -2.7 851.57001
-26.370001 -2.8299999 851.46002
-21.1 -2.78 851.34998
-19.84 -2.77 851.32001
-18.59 -2.76 851.32001
-18.34 -2.76 851.31
-15.07 -2.73 851.26001
-11.06 -2.7 851.17999
-0.75999999 -2.6099999 850.96997
1.47 -2.49 850.91998
10.48 -2.4000001 850.77002
52.25 -2.3299999 850.03003
75.370003 -2.26 849.65002
89.160004 -2.2 849.38
100.47 -2.0899999 849.20001
102.22 -2.0799999 849.16998
113.15 -2.01 848.96002
116.63 -1.99 848.90997
121.75 -2.0599999 848.83002
122.49 -2.0599999 848.79999
123.23 -2.0599999 848.78003
127.45 -2.05 848.70001
137.13 -2.02 848.53998
142.09 -2 848.46997
142.59 -2 848.46997
155.85001 -1.9400001 848.21002
158.36 -1.9299999 848.15997
161.88 -1.92 848.10999
168.16 -1.9 848.02002
181.60001 -1.87 847.78003
183.89 -1.86 847.73999
202.45 -1.8200001 847.40002
208.5 -2.47 847.34003
209.83 -3.2 847.35999
208.28999 -3.4300001 847.41998
-173.24001 -3.5 854.02002
-157.8 -3.3099999 853.75
-157.53999 -3.3099999 853.76001
-156.99001 -3.3 853.72998
-152.66 -3.25 853.65997
-131.25999 -3.1199999 853.28003
-110.08 -3.04 852.91998
-109.29 -3.03 852.90997
-102.2 -2.95 852.75
-97.739998 -2.9000001 852.69
-94.059998 -2.8599999 852.59998
-91.970001 -2.8399999 852.59998
-88.900002 -2.9000001 852.52002
-87.110001 -2.9100001 852.48999
-71.769997 -2.71 852.21997
-70.989998 -2.7 852.21997
-69.949997 -2.6900001 852.19
-67.360001 -2.6600001 852.15997
-66.059998 -2.6400001 852.13
-65.010002 -2.6300001 852.08002
-63.459999 -2.6099999 852.09003
-62.16 -2.5899999 852.06
-57.439999 -2.75 851.97998
-52.41 -2.6800001 851.90002
-52.16 -2.6800001 851.88
-51.400002 -2.6700001 851.84998
-46.119999 -2.5999999 851.75
-31.540001 -2.4100001 851.51001
-21.6 -2.54 851.34998
-18.59 -2.51 851.28003
-17.08 -2.5 851.27002
-16.83 -2.5 851.26001
-16.58 -2.49 851.25
-11.56 -2.45 851.15002
-4.0300002 -2.3900001 851.03998
93.760002 -1.89 849.31
94.010002 -1.89 849.27002
95 -1.88 849.27002
95.25 -1.88 849.25
106.69 -1.8099999 849.04999
112.9 -1.77 848.94
127.7 -1.8 848.70001
131.92 -1.78 848.64001
139.11 -1.76 848.47998
153.59 -1.7 848.26001
155.35001 -1.6900001 848.21997
163.89 -1.67 848.08002
169.67 -1.65 847.96997
180.58 -1.65 847.78003
182.61 -1.62 847.73999
183.12 -1.62 847.73999
187.45 -1.61 847.65997
200.16 -1.58 847.41998
209.25 -2.23 847.32001
208.28 -2.77 847.37
208.52 -2.77 847.34998
209.83 -2.97 847.37
-224.25 -3.49 854.90997
-213.36 -3.3399999 854.73999
-206.14 -3.4400001 854.62
-201.42999 -3.3699999 854.52002
-200.60001 -3.3599999 854.51001
-197.27 -3.3099999 854.42999
-195.62 -3.28 854.42999
-172.16 -3.22 853.98999
-165.12 -3.1400001 853.88
-161.87 -3.0999999 853.83002
-132.33 -2.8800001 853.28003
-128.85001 -2.8299999 853.21002
-124.84 -2.78 853.13
-124.05 -2.77 853.15002
-111.65 -2.8 852.90997
-111.39 -2.8 852.92999
-109.81 -2.78 852.87
-98 -2.6500001 852.66998
-91.169998 -2.5799999 852.53998
-88.639999 -2.6500001 852.51001
-87.110001 -2.6600001 852.48999
-85.029999 -2.6300001 852.46002
-83.470001 -2.6099999 852.42999
-81.129997 -2.5799999 852.37
-76.970001 -2.53 852.29999
-61.639999 -2.3299999 852.03003
-60.599998 -2.3199999 852
-59.23 -2.47 852
-54.169998 -2.46 851.89001
-41.09 -2.29 851.65002
-26.879999 -2.3299999 851.40997
-26.370001 -2.3299999 851.40002
-25.370001 -2.3199999 851.40002
-21.6 -2.29 851.32001
-21.1 -2.28 851.31
-20.85 -2.28 851.31
-9.5500002 -2.1800001 851.09998
-7.54 -2.1700001 851.08002
12.74 -1.88 850.69
12.98 -1.88 850.70001
81.879997 -1.74 849.47998
83.639999 -1.73 849.44
85.900002 -1.72 849.42999
93.260002 -1.65 849.27002
95.5 -1.64 849.22998
96 -1.63 849.23999
101.72 -1.59 849.14001
107.43 -1.5599999 849.03998
108.68 -1.55 849.01001
111.41 -1.53 848.95001
119.11 -1.49 848.81
120.5 -1.5700001 848.78998
121.99 -1.5700001 848.76001
128.69 -1.55 848.65002
132.91 -1.53 848.59003
136.13 -1.52 848.54999
138.37 -1.52 848.5
142.33 -1.51 848.42999
146.06 -1.49 848.37
152.83 -1.46 848.22998
155.85001 -1.45 848.17999
156.60001 -1.4400001 848.15997
161.37 -1.4299999 848.09003
162.13 -1.4299999 848.07001
167.91 -1.41 847.98999
171.17 -1.4 847.91998
172.42 -1.4 847.88
174.94 -1.39 847.85999
182.10001 -1.38 847.73999
184.64 -1.37 847.66998
189.48 -1.36 847.59998
203.71001 -1.33 847.33002
208.03999 -1.3200001 847.25
209.98 -2.72 847.32001
208.67999 -3.45 847.40997
-258.04999 -3.4100001 855.48999
-257.76999 -3.4100001 855.5
-234.28 -3.3499999 855.08002
-221.96001 -3.1900001 854.87
-216.78999 -3.1199999 854.77002
-207.24001 -3.2 854.59998
-201.71001 -3.1099999 854.51001
-197.83 -3.05 854.45001
-193.39999 -2.99 854.35999
-191.73 -2.96 854.31
-191.17999 -2.95 854.29999
-188.69 -2.9200001 854.26001
-179.62 -3.3599999 854.15002
-175.14 -3 854.02002
-174.32001 -2.99 854
-161.60001 -2.8399999 853.79999
-157.53999 -2.79 853.71997
-151.85001 -2.72 853.60999
-146.24001 -2.8 853.53003
-135.00999 -2.6500001 853.33002
-119.35 -2.5599999 853.03998
-118.82 -2.55 853.03998
-116.11 -2.5999999 852.98999
-108.24 -2.51 852.84998
-75.93 -2.26 852.26001
-69.959999 -2.1800001 852.16998
-67.089996 -2.1500001 852.09003
-48.380001 -2.1300001 851.76001
-39.080002 -2.01 851.60999
-36.57 -1.98 851.56
-36.060001 -1.97 851.53998
-34.560001 -1.95 851.53003
-34.299999 -1.95 851.52002
-29.9 -2.0899999 851.46002
-27.879999 -2.0899999 851.41998
-12.81 -1.96 851.14001
-11.56 -1.95 851.12
5.23 -1.7 850.81
13.49 -1.62 850.65997
93.760002 -1.4 849.27002
97.239998 -1.38 849.17999
97.980003 -1.37 849.17999
103.95 -1.33 849.09003
115.14 -1.26 848.88
116.13 -1.26 848.84003
117.37 -1.25 848.84003
122.23 -1.3200001 848.73999
125.46 -1.3099999 848.67999
128.69 -1.3 848.65002
128.92999 -1.3 848.64001
134.14999 -1.28 848.56
139.85001 -1.27 848.46002
140.35001 -1.27 848.41998
147.03999 -1.25 848.32001
151.07001 -1.21 848.25
158.36 -1.1900001 848.10999
163.38 -1.1799999 848.03003
165.64 -1.17 848
167.89999 -1.16 847.96997
174.92999 -1.14 847.82001
187.44 -1.12 847.62
192.78 -1.1 847.52002
194.31 -1.1 847.51001
209.99001 -1.8099999 847.28998
-269.16 -3.3 855.67999
-264.81 -3.25 855.62
-262.73999 -3.22 855.54999
-258.06 -3.1400001 855.48999
-236.58 -3.1199999 855.12
-220.8 -2.9100001 854.82001
-206.39999 -2.9200001 854.56
-199.21001 -2.8099999 854.45001
-197.82001 -2.79 854.41998
-194.5 -2.74 854.35999
-177.03999 -2.76 854.04999
-175.67999 -2.75 854.03998
-174.33 -2.73 854.01001
-173.50999 -2.72 853.97998
-166.2 -2.6300001 853.85999
-158.88 -2.55 853.70001
-153.2 -2.48 853.62
-139.00999 -2.45 853.34998
-135.53999 -2.4000001 853.32001
-133.39999 -2.3800001 853.25
-129.64999 -2.3299999 853.17999
-126.98 -2.29 853.14001
-123.51 -2.25 853.07001
-115.85 -2.3399999 852.95001
-115.32 -2.3299999 852.95001
-111.91 -2.3 852.88
-108.5 -2.26 852.83002
-100.88 -2.1800001 852.67999
-98.519997 -2.1500001 852.63
-97.470001 -2.1400001 852.62
-94.580002 -2.1099999 852.58002
-91.959999 -2.0799999 852.53003
-82.169998 -2.0899999 852.34998
-75.93 -2.01 852.22998
-65.800003 -1.88 852.07001
-64.75 -1.86 852.03003
-51.650002 -1.92 851.81
-34.049999 -1.6900001 851.48999
-31.030001 -1.65 851.42999
-24.620001 -1.8099999 851.34003
-22.860001 -1.8 851.29999
-19.09 -1.76 851.23999
96.489998 -1.13 849.20001
104.7 -1.08 849.04999
108.18 -1.0599999 848.97998
110.66 -1.05 848.91998
120.25 -1.08 848.78998
122.48 -1.0700001 848.73999
136.62 -1.03 848.5
145.8 -1 848.34003
148.28 -1 848.28003
156.85001 -0.94999999 848.12
172.42 -0.89999998 847.85999
175.17999 -0.89999998 847.79999
177.69 -0.88999999 847.76001
180.57001 -0.91000003 847.72998
187.42999 -0.87 847.58002
195.07001 -0.85000002 847.46002
195.32001 -0.85000002 847.46997
198.38 -0.83999997 847.41998
198.62 -0.85000002 847.38
-260.39999 -2.9100001 855.52002
-229.12 -2.76 854.96002
-215.07001 -2.5699999 854.69
-206.39999 -2.6600001 854.53998
-188.67999 -2.3900001 854.21002
-185.08 -2.3399999 854.14001
-183.97 -2.3199999 854.12
-174.33 -2.47 853.98999
-167.56 -2.3900001 853.87
-166.74001 -2.3800001 853.84998
-166.2 -2.3699999 853.84003
-162.13 -2.3299999 853.75
-156.44 -2.26 853.64001
-143.28999 -2.24 853.41998
-135.53999 -2.1500001 853.28998
-120.14 -2.0599999 853.01001
-119.61 -2.05 852.98999
-110.86 -2.03 852.84998
-106.13 -1.98 852.76001
-104.56 -1.96 852.75
-102.19 -1.9400001 852.67999
-101.93 -1.9299999 852.70001
-86.07 -1.88 852.40997
-84.25 -1.86 852.35999
-82.949997 -1.84 852.34003
-80.610001 -1.8099999 852.32001
-75.669998 -1.75 852.20001
-72.290001 -1.71 852.16998
-65.540001 -1.62 852.04999
-63.200001 -1.59 852
-61.110001 -1.5599999 851.94
-59.23 -1.72 851.95001
-58.450001 -1.76 851.91998
-52.91 -1.6900001 851.82001
-50.900002 -1.66 851.78003
-47.380001 -1.61 851.71002
-40.080002 -1.52 851.57001
-39.330002 -1.51 851.57001
-37.07 -1.48 851.53998
-31.030001 -1.4 851.41998
-29.639999 -1.59 851.40002
-27.129999 -1.58 851.35999
-25.620001 -1.5700001 851.33002
-25.120001 -1.5599999 851.33002
-19.6 -1.52 851.23999
-19.35 -1.52 851.21997
-13.07 -1.46 851.09998
3.98 -1.21 850.78998
7.73 -1.1799999 850.71997
94.75 -0.89999998 849.21997
95.989998 -0.88999999 849.19
107.43 -0.81999999 848.98999
107.68 -0.81999999 848.98999
111.9 -0.79000002 848.88
113.14 -0.77999997 848.88
123.72 -0.81999999 848.71002
127.94 -0.81 848.59998
143.57001 -0.75999999 848.34003
162.12 -0.69 848.02002
168.14999 -0.67000002 847.90997
170.16 -0.66000003 847.88
170.66 -0.66000003 847.84998
172.67 -0.66000003 847.83002
180.31 -0.67000002 847.71002
183.87 -0.63 847.63
184.13 -0.63 847.62
186.41 -0.63 847.58002
187.17999 -0.63 847.58002
189.47 -0.62 847.52002
201.67 -0.58999997 847.33002
208.03 -0.57999998 847.20001
208.49001 -1.26 847.27002
208.87 -2.05 847.28998
-267.72 -2.75 855.63
-264.79001 -2.72 855.56
-259.81 -2.6400001 855.47998
-255.11 -2.5699999 855.38
-231.12 -2.52 854.97998
-229.39999 -2.5 854.94
-222.81 -2.4100001 854.83002
-217.64999 -2.3399999 854.73999
-206.41 -2.4000001 854.54999
-204.17999 -2.3699999 854.47998
-197.53 -2.27 854.34998
-187.3 -2.1099999 854.19
-161.87 -2.0599999 853.73999
-161.60001 -2.0599999 853.73999
-158.62 -2.02 853.67999
-155.64 -1.99 853.64001
-153.2 -1.96 853.56
-151.3 -1.9400001 853.53003
-147.31 -2.04 853.47998
-146.5 -2.03 853.46002
-140.62 -1.95 853.34998
-134.21001 -1.87 853.25
-126.99 -1.78 853.12
-122.71 -1.73 853.03998
-116.89 -1.84 852.92999
-114.27 -1.8099999 852.89001
-112.43 -1.79 852.85999
-108.76 -1.75 852.81
-105.86 -1.72 852.71997
-103.5 -1.7 852.69
-102.45 -1.6799999 852.65997
-100.62 -1.66 852.65002
-100.35 -1.66 852.62
-88.410004 -1.66 852.42999
-70.730003 -1.4299999 852.09998
-69.43 -1.42 852.09998
-68.139999 -1.4 852.08002
-64.489998 -1.35 851.98999
-56.43 -1.48 851.85999
-49.139999 -1.39 851.75
-47.369999 -1.36 851.69
-41.84 -1.29 851.59003
-40.580002 -1.27 851.57001
-40.330002 -1.27 851.57001
-36.560001 -1.22 851.51001
-27.129999 -1.33 851.34998
-26.879999 -1.33 851.34003
-22.110001 -1.29 851.27002
-8.0500002 -1.17 850.98999
85.889999 -0.74000001 849.34998
97.730003 -0.63 849.15002
97.980003 -0.63 849.14001
115.13 -0.51999998 848.83002
121.48 -0.57999998 848.71997
123.22 -0.57999998 848.70001
136.12 -0.54000002 848.46997
151.56 -0.47999999 848.16998
158.35001 -0.44999999 848.04999
158.60001 -0.44999999 848.06
160.86 -0.44 848.03003
169.64999 -0.41999999 847.88
172.41 -0.41 847.79999
175.17999 -0.40000001 847.78003
176.67999 -0.40000001 847.72998
182.09 -0.38999999 847.64001
183.61 -0.38999999 847.60999
183.87 -0.38999999 847.60999
185.14 -0.38 847.60999
189.72 -0.37 847.53003
194.55 -0.36000001 847.42999
197.09 -0.36000001 847.39001
198.62 -0.34999999 847.35999
201.67 -0.34999999 847.29999
203.45 -0.34 847.28003
207.52 -0.33000001 847.20001
208.77 -1.59 847.26001
208.50999 -3.1300001 847.38
-266.19 -3.23 855.62
-264.20001 -2.4400001 855.54999
-263.60999 -2.4300001 855.51001
-263.03 -2.4200001 855.53003
-251.60001 -2.25 855.31
-221.64999 -2.1300001 854.77002
-201.96001 -2.0799999 854.41998
-199.19 -2.03 854.38
-195.03999 -1.97 854.29999
-187.28999 -1.85 854.15002
-167.28 -1.87 853.81
-165.39 -1.85 853.78998
-165.11 -1.84 853.78003
-161.87 -1.8 853.72998
-161.59 -1.8 853.70001
-159.42 -1.77 853.65997
-150.5 -1.74 853.52002
-147.85001 -1.79 853.48999
-135 -1.62 853.23999
-133.13 -1.6 853.21002
-104.29 -1.45 852.71002
-102.45 -1.4299999 852.65997
-96.150002 -1.36 852.53998
-93.260002 -1.33 852.47998
-90.199997 -1.4 852.42999
-86.059998 -1.38 852.35999
-84.760002 -1.36 852.33002
-82.43 -1.33 852.32001
-68.129997 -1.15 852.04999
-64.75 -1.1 851.97998
-57.189999 -1.24 851.84998
-56.939999 -1.24 851.87
-53.66 -1.1900001 851.78003
-53.16 -1.1900001 851.77002
-48.630001 -1.13 851.70001
-45.369999 -1.09 851.65997
-39.330002 -1.01 851.52002
-34.549999 -0.94 851.44
-28.139999 -1.09 851.34003
-7.0500002 -0.91000003 850.95001
14.49 -0.61000001 850.59003
85.889999 -0.49000001 849.32001
96.980003 -0.40000001 849.10999
98.230003 -0.38 849.12
108.67 -0.31999999 848.90002
111.15 -0.30000001 848.88
112.15 -0.30000001 848.87
112.89 -0.28999999 848.84003
122.47 -0.33000001 848.66998
125.7 -0.31999999 848.62
133.39 -0.30000001 848.5
134.38 -0.30000001 848.48999
134.63 -0.30000001 848.45001
135.13 -0.28999999 848.46997
144.05 -0.27000001 848.28998
145.78999 -0.25999999 848.28003
151.56 -0.23 848.16998
156.08 -0.22 848.07001
157.59 -0.20999999 848.06
165.88 -0.18000001 847.91998
171.7 -0.83999997 847.85999
176.45 -0.83999997 847.77002
190.36 -0.69999999 847.52002
195.17 -0.68000001 847.42999
203.53 -0.66000003 847.29999
208.35001 -0.64999998 847.21002
-267.04999 -3.1600001 855.64001
-267.92999 -2.99 855.64001
-269.17001 -2.24 855.59998
-252.77 -2 855.32001
-247.78 -1.92 855.21002
-223.94 -1.9 854.78998
-199.19 -1.77 854.35999
-180.52 -1.65 854.03003
-178.61 -1.62 854.01001
-165.39 -1.59 853.77002
-164.03 -1.5700001 853.72998
-161.32001 -1.54 853.69
-151.85001 -1.4299999 853.53003
-145.16 -1.5 853.39001
-124.04 -1.23 853.01001
-112.95 -1.29 852.82001
-107.44 -1.23 852.73999
-107.18 -1.23 852.73999
-104.55 -1.2 852.69
-103.24 -1.1900001 852.66998
-100.88 -1.16 852.62
-95.360001 -1.1 852.5
-91.43 -1.0599999 852.42999
-89.160004 -1.13 852.39001
-88.139999 -1.15 852.38
-82.43 -1.08 852.29999
-82.160004 -1.0700001 852.27002
-71.25 -0.93000001 852.09998
-64.75 -0.85000002 851.96997
-64.230003 -0.85000002 851.96002
-62.669998 -0.82999998 851.92999
-59.220001 -0.97000003 851.88
-55.169998 -0.95999998 851.79999
-49.130001 -0.88 851.70001
-42.09 -0.79000002 851.54999
-41.34 -0.77999997 851.56
-32.040001 -0.66000003 851.37
-23.120001 -0.80000001 851.23999
-17.84 -0.75 851.14001
-6.04 -0.64999998 850.91998
13.74 -0.37 850.57001
77.860001 -0.28 849.44
92.260002 -0.18000001 849.20001
93.25 -0.17 849.17999
101.21 -0.12 849.04999
106.47 -0.85000002 848.97998
110.41 -0.81999999 848.92999
114.34 -0.79000002 848.85999
115.57 -0.77999997 848.82001
115.82 -0.76999998 848.83002
117.05 -0.75999999 848.81
119.02 -0.75 848.75
120.03 -0.090000004 848.69
121.52 -0.1 848.66998
122.76 -0.1 848.64001
124.99 -0.1 848.60999
131.92999 -0.1 848.5
132.42999 -0.1 848.5
138.13 -0.11 848.40002
140.36 -0.11 848.34003
140.86 -0.11 848.35999
144.82001 -0.11 848.27002
156.31 -0.0099999998 848.07001
157.57001 -0.0099999998 848.06
158.32001 -0.0099999998 848.03998
163.10001 -0.029999999 847.95001
165.86 -0.029999999 847.89001
172.89999 -0.050000001 847.77002
186.58 0.059999999 847.53998
190.66 0.039999999 847.46997
193.21001 0.029999999 847.41998
194.23 0.029999999 847.41998
196.27 0.02 847.37
208.99001 -0.52999997 847.20001
209.61 -2.0999999 847.29999
208.46001 -2.51 847.35999
208.28 -2.6900001 847.38
208.81 -2.96 847.37
209.48 -2.96 847.37
-269.37 -2.75 855.63
-262.72 -1.89 855.46997
-234.56 -1.77 854.98999
-224.52 -1.64 854.78998
-216.2 -1.53 854.62
-215.36 -1.52 854.64001
-204.17 -1.59 854.42999
-196.98 -1.48 854.32001
-190.06 -1.37 854.19
-175.13 -1.4400001 853.90997
-172.69 -1.41 853.85999
-169.17999 -1.37 853.82001
-162.13 -1.29 853.66998
-149.42999 -1.21 853.46002
-148.88 -1.21 853.42999
-147.58 -1.27 853.44
-138.48 -1.16 853.27002
-136.35001 -1.13 853.23999
-132.87 -1.08 853.17999
-132.06 -1.0700001 853.15002
-130.99001 -1.0599999 853.12
-130.19 -1.05 853.09998
-129.39 -1.04 853.09998
-124.84 -0.98000002 853.01001
-122.45 -0.94999999 852.98999
-118.81 -1.03 852.90002
-101.13 -0.91000003 852.59003
-99.82 -0.88999999 852.56
-98.25 -0.88 852.54999
-93.790001 -0.82999998 852.46997
-90.199997 -0.88999999 852.40002
-88.150002 -0.89999998 852.37
-82.949997 -0.82999998 852.28998
-81.389999 -0.81 852.26001
-69.949997 -0.66000003 852.03003
-68.650002 -0.64999998 852.02002
-68.129997 -0.63999999 851.98999
-64.239998 -0.58999997 851.95001
-59.73 -0.72000003 851.88
-52.400002 -0.67000002 851.72998
-48.630001 -0.63 851.65002
-41.59 -0.52999997 851.53998
-37.32 -0.47999999 851.46997
-34.299999 -0.44 851.39001
-31.290001 -0.40000001 851.35999
-24.870001 -0.56 851.23999
-21.610001 -0.52999997 851.17999
84.349998 -0.039999999 849.31
95.349998 0.059999999 849.14001
101.08 0.07 849.03998
105.32 0.090000004 848.95001
108.07 0.090000004 848.90002
108.32 0.090000004 848.90002
113.3 0.11 848.78998
114.05 0.11 848.78998
116.79 0.12 848.73999
120.03 0.14 848.69
120.77 0.14 848.67999
122.26 0.14 848.65002
123.26 0.14 848.64001
125.49 0.14 848.60999
130.69 0.13 848.51001
131.69 0.13 848.5
137.39 0.13 848.39001
138.38 0.13 848.38
152.03 0.23999999 848.14001
152.53 0.23999999 848.10999
155.3 0.23 848.06
158.07001 0.23 848.03998
158.57001 0.23 848.03003
162.84 0.20999999 847.91998
163.10001 0.20999999 847.94
176.67 0.17 847.69
176.92 0.17 847.69
178.42999 0.17 847.66998
178.92999 0.16 847.65002
179.69 0.16 847.65002
182.24001 0.31999999 847.59998
191.92999 0.28999999 847.44
195.5 0.27000001 847.34998
208 0.23 847.16998
208.99001 -0.28 847.19
208.36 -2.74 847.34998
-267.12 -1.6900001 855.54999
-263.01001 -1.63 855.44
-260.95999 -1.59 855.40997
-240.14999 -1.8 855.07001
-238.81 -1.4 855.03998
-214.49001 -1.25 854.59998
-197.52 -1.23 854.29999
-195.3 -1.1900001 854.23999
-191.42999 -1.13 854.15997
-186.17 -1.05 854.08002
-184.50999 -1.03 854.06
-176.22 -1.2 853.92999
-174.31 -1.17 853.87
-171.34 -1.14 853.82001
-160.50999 -1.01 853.65002
-159.69 -1 853.60999
-148.34 -0.94 853.40002
-142.75999 -0.94999999 853.31
-125.38 -0.73000002 853.02002
-108.75 -0.74000001 852.71997
-108.49 -0.73000002 852.72998
-107.44 -0.72000003 852.70001
-104.81 -0.69 852.65997
-102.97 -0.67000002 852.62
-102.71 -0.67000002 852.60999
-99.82 -0.63999999 852.56
-96.410004 -0.60000002 852.47998
-95.360001 -0.58999997 852.48999
-94.309998 -0.57999998 852.46002
-90.900002 -0.54000002 852.40997
-89.419998 -0.63 852.38
-86.330002 -0.62 852.34003
-81.129997 -0.55000001 852.23999
-76.18 -0.49000001 852.12
-67.089996 -0.38 851.95001
-62.150002 -0.31 851.88
-49.130001 -0.38 851.64001
-45.610001 -0.34 851.59003
-45.110001 -0.33000001 851.59003
-41.84 -0.28999999 851.53998
-32.290001 -0.16 851.34003
-31.030001 -0.15000001 851.34003
-30.280001 -0.14 851.33002
-26.129999 -0.31999999 851.27002
-23.120001 -0.30000001 851.19
-22.360001 -0.28999999 851.17999
-22.110001 -0.28999999 851.17999
-6.8000002 -0.15000001 850.91998
-2.53 -0.12 850.83002
5.5799999 0.02 850.65997
93.849998 0.30000001 849.10999
96.839996 0.31 849.08002
103.58 0.33000001 848.96997
104.33 0.33000001 848.96002
117.29 0.36000001 848.71997
123 0.38 848.60999
124 0.38 848.59003
127.47 0.38 848.54999
131.67999 0.38 848.45001
132.92 0.38 848.45001
137.13 0.37 848.37
138.37 0.37 848.34003
146.06 0.37 848.21997
160.83 0.46000001 847.95001
161.08 0.46000001 847.95001
182.75 0.56999999 847.58002
205 0.44999999 847.17999
207.02 0.44 847.14001
208.67999 -1.65 847.29999
-267.06 -2.3800001 855.59998
-262.13 -1.35 855.40997
-240.25 -1.16 855.03998
-218.5 -1.04 854.64001
-216.78 -1.01 854.60999
-206.10001 -1.1 854.42999
-202.78 -1.05 854.35999
-198.08 -0.97000003 854.29999
-194.2 -0.92000002 854.21997
-177.85001 -0.95999998 853.95001
-173.77 -0.91000003 853.84998
-172.96001 -0.89999998 853.83002
-169.99001 -0.86000001 853.79999
-161.87 -0.76999998 853.65997
-146.77 -0.75 853.37
-143.83 -0.70999998 853.32001
-140.35001 -0.67000002 853.27002
-113.99 -0.54000002 852.78003
-111.9 -0.51999998 852.77002
-111.37 -0.50999999 852.75
-103.23 -0.41999999 852.60999
-96.150002 -0.34999999 852.46997
-85.550003 -0.36000001 852.29999
-85.279999 -0.34999999 852.28003
-82.940002 -0.31999999 852.23999
-78 -0.25999999 852.13
-74.370003 -0.20999999 852.08002
-71.769997 -0.18000001 852.04999
-70.209999 -0.16 852.02002
-58.869999 -0.25999999 851.79999
-29.4 -0.090000004 851.29999
-21.360001 -0.029999999 851.15997
13.61 0.31999999 850.5
50.59 0.41999999 849.87
92.349998 0.54000002 849.13
95.589996 0.55000001 849.09998
100.33 0.56 849
103.08 0.56999999 848.96002
107.81 0.57999998 848.85999
113.55 0.60000002 848.78003
115.29 0.61000001 848.75
116.04 0.61000001 848.71997
119.28 0.62 848.67999
123.25 0.63 848.58002
123.5 0.63 848.59003
158.84 0.72000003 847.97998
166.12 0.69999999 847.83002
169.39999 0.69 847.81
182.24001 0.81 847.54999
182.49001 0.81 847.57001
184.53999 0.80000001 847.52002
185.05 0.80000001 847.52002
196.02 0.74000001 847.34003
197.28999 0.73000002 847.28998
198.58 0.73000002 847.29999
209.03 0.67000002 847.10999
209.2 0.13 847.14001
208.36 -2.3099999 847.34003
208.52 -2.71 847.35999
-266.5 -1.9299999 855.53998
-264.76999 -1.12 855.46002
-263.01001 -1.09 855.42999
-260.67001 -1.0599999 855.39001
-255.97 -0.98000002 855.29999
-235.12 -0.99000001 854.91998
-223.66 -0.83999997 854.71997
-211.49001 -0.85000002 854.51001
-210.36 -0.82999998 854.46997
-200.84 -0.75999999 854.33002
-194.47 -0.66000003 854.19
-173.77 -0.64999998 853.82001
-164.57001 -0.54000002 853.67999
-153.2 -0.40000001 853.46997
-151.03 -0.38 853.41998
-147.84 -0.5 853.37
-147.03999 -0.49000001 853.37
-141.14999 -0.41999999 853.23999
-108.74 -0.23 852.66998
-101.92 -0.16 852.57001
-100.86 -0.14 852.52002
-99.82 -0.13 852.51001
-94.660004 0.02 852.42999
-85.809998 -0.11 852.28998
-81.120003 -0.050000001 852.16998
-78.519997 -0.0099999998 852.12
-67.620003 0.1 851.96002
-67.360001 0.11 851.94
-54.27 0.039999999 851.70001
-52.25 0.059999999 851.66998
-42.150002 0.18000001 851.5
-38.869999 0.22 851.44
-36.59 0.23999999 851.38
-35.080002 0.25999999 851.34998
-33.310001 0.28 851.34998
-32.810001 0.28999999 851.32001
-29.030001 0.15000001 851.26001
-12.22 0.31 850.96002
-8.46 0.34999999 850.90997
12.35 0.56 850.53003
107.06 0.81999999 848.87
109.05 0.81999999 848.83002
109.3 0.81999999 848.84003
111.8 0.81999999 848.77002
115.29 0.82999998 848.71997
116.29 0.82999998 848.70001
121.76 0.87 848.59998
124.24 0.87 848.56
126.23 0.87 848.52002
127.72 0.87 848.5
130.69 0.87 848.46002
147.31 0.85000002 848.15997
154.31 0.98000002 848.03003
156.07001 0.97000003 848.02002
169.14 0.94 847.76001
172.16 0.93000001 847.73999
178.17999 0.91000003 847.60999
180.71001 1.05 847.58002
182.74001 1.0599999 847.52002
198.57001 0.97000003 847.27002
207.5 0.92000002 847.12
208.42999 0.1 847.16998
209.83 -0.43000001 847.15997
209.7 -0.68000001 847.20001
209.85001 -2.49 847.33002
-266.59 -0.88 855.46002
-266.01001 -0.87 855.44
-263.59 -0.83999997 855.41998
-263.29999 -0.82999998 855.41998
-256.54999 -0.73000002 855.28003
-252.74001 -0.67000002 855.21002
-234.84 -0.72000003 854.91998
-223.37 -0.56999999 854.69
-223.08 -0.56999999 854.69
-216.21001 -0.47999999 854.58002
-210.92 -0.57999998 854.46997
-203.60001 -0.54000002 854.34003
-198.89 -0.47 854.25
-196.96001 -0.44 854.22998
-187 -0.28999999 854.06
-183.39999 -0.23 853.98999
-183.12 -0.23 853.96997
-181.49001 -0.15000001 853.94
-166.46001 -0.30000001 853.69
-166.19 -0.30000001 853.69
-161.85001 -0.25 853.59003
-159.42 -0.22 853.56
-151.46001 0.13 853.39001
-150.22 -0.12 853.39001
-142.49001 -0.18000001 853.26001
-141.96001 -0.17 853.25
-138.74001 -0.13 853.17999
-120.33 -0.0099999998 852.84998
-118.19 -0.079999998 852.84003
-107.26 0.1 852.60999
-102.02 0.18000001 852.52002
-92.330002 0.33000001 852.34998
-87.629997 0.11 852.27002
-82.169998 0.18000001 852.16998
-74.110001 0.28 852.03003
-42.150002 0.43000001 851.47998
-40.130001 0.44999999 851.46002
-39.119999 0.46000001 851.42999
-26.77 0.41999999 851.21997
-21 0.47999999 851.10999
-16.49 0.51999998 851.02002
81.330002 0.93000001 849.28003
92.089996 1.03 849.09998
96.080002 1.04 849.02002
100.32 1.05 848.96997
111.3 1.0700001 848.77002
111.8 1.0700001 848.78003
112.3 1.0700001 848.76001
116.28 1.08 848.70001
121.76 1.12 848.58002
124.98 1.12 848.51001
133.42 1.11 848.37
133.91 1.11 848.38
160.09 1.21 847.90002
166.37 1.1900001 847.78998
172.39999 1.17 847.70001
177.42999 1.16 847.60999
180.19 1.3 847.57001
185.55 1.29 847.46997
199.33 1.21 847.23999
203.41 1.1900001 847.16998
209.42999 0.33000001 847.10999
209.35001 -0.2 847.16998
208.44 -0.97000003 847.21997
-267.37 -1.42 855.5
-263 -0.56 855.38
-243.95 -0.27000001 855.03998
-222.22 -0.28999999 854.66998
-210.33 -0.23999999 854.42999
-208.92999 -0.20999999 854.41998
-207.75 -0.34 854.40002
-195.3 -0.15000001 854.19
-194.5 -0.11 854.15002
-191.25999 0.029999999 854.10999
-188.48 0.090000004 854.04999
-181.08 -0.039999999 853.91998
-176.75 -0.17 853.84998
-169.03999 0.02 853.69
-156.86 0.27000001 853.46002
-129.47 0.28999999 853
-127.6 0.31999999 852.97998
-116.43 0.2 852.78998
-110.92 0.28999999 852.65997
-109.09 0.31999999 852.64001
-108.83 0.33000001 852.65002
-100.97 0.44999999 852.5
-96.25 0.52999997 852.40002
-95.730003 0.52999997 852.40002
-92.07 0.58999997 852.34003
-81.650002 0.44 852.16998
-80.870003 0.44999999 852.15997
-79.050003 0.47 852.09998
-74.120003 0.52999997 852.03998
-72.290001 0.55000001 851.98999
-64.760002 0.63999999 851.85999
-64.230003 0.64999998 851.84003
-61.639999 0.68000001 851.81
-59.32 0.52999997 851.76001
-58.560001 0.49000001 851.76001
-39.619999 0.70999998 851.41998
-37.099998 0.74000001 851.37
-35.330002 0.75999999 851.32001
-22.26 0.70999998 851.12
-21 0.73000002 851.07001
-18.74 0.75 851.03998
-12.48 0.81 850.95001
-0.69 0.92000002 850.72998
86.589996 1.2 849.17999
95.330002 1.29 849.03998
103.31 1.3 848.88
103.56 1.3 848.90002
105.06 1.3 848.85999
106.31 1.3 848.82001
107.06 1.3 848.81
110.05 1.3099999 848.77002
110.55 1.3099999 848.76001
110.8 1.3099999 848.77002
114.29 1.3200001 848.67999
120.52 1.37 848.59998
125.23 1.36 848.51001
126.47 1.36 848.46997
131.42999 1.35 848.39001
133.91 1.35 848.37
137.14 1.35 848.32001
139.86 1.34 848.26001
141.85001 1.34 848.23999
148.53999 1.33 848.09003
152.53999 1.47 848.01001
160.84 1.45 847.87
163.35001 1.45 847.84998
169.89 1.4299999 847.71002
171.39999 1.42 847.71002
172.14999 1.42 847.70001
183.75999 1.55 847.48999
185.03 1.54 847.46002
192.69 1.5 847.33002
207.23 1.42 847.09003
207.75 1.42 847.09003
208.25 1.41 847.06
205.22 -0.23999999 847.25
208.23 -1.1799999 847.26001
208.3 -2.0699999 847.32001
209.19 -2.0599999 847.28998
-265.63 -0.34 855.40997
-262.70999 -0.28999999 855.37
-252.14 -0.13 855.15002
-247.81 0.02 855.06
-237.69 -0.23 854.90002
-230.81 -0.14 854.77002
-220.14999 0.14 854.57001
-204.48 -0.02 854.31
-202.36 0.050000001 854.27002
-197.09 0.16 854.20001
-174.46001 0.16 853.78998
-166.60001 0.33000001 853.64001
-149.84 0.38999999 853.35999
-148.22 0.41 853.29999
-143.14 0.33000001 853.22998
-142.33 0.34999999 853.21997
-138.85001 0.40000001 853.15002
-112.76 0.51999998 852.70001
-105.95 0.63 852.58002
-104.64 0.64999998 852.56
-102.8 0.68000001 852.51001
-93.629997 0.81999999 852.34003
-92.32 0.83999997 852.32001
-88.150002 0.61000001 852.25
-86.589996 0.63 852.23999
-83.470001 0.67000002 852.19
-76.970001 0.75 852.06
-76.709999 0.75 852.04999
-75.669998 0.75999999 852.03003
-69.169998 0.83999997 851.90002
-68.650002 0.85000002 851.90997
-67.349998 0.86000001 851.87
-57.049999 0.75999999 851.71002
-50.990002 0.82999998 851.62
-47.700001 0.87 851.53003
-40.880001 0.94999999 851.40002
-18.74 1 851.01001
-0.69 1.17 850.70001
14.36 1.3200001 850.45001
46.599998 1.38 849.85999
83.330002 1.4400001 849.21997
92.580002 1.53 849.08002
102.32 1.55 848.90002
104.31 1.55 848.84998
106.06 1.55 848.84003
107.55 1.55 848.78003
111.54 1.5599999 848.72998
112.29 1.5599999 848.71002
121.26 1.61 848.57001
121.75 1.61 848.53998
122.99 1.61 848.52002
128.2 1.6 848.41998
136.64 1.59 848.29999
140.11 1.59 848.23999
140.85001 1.59 848.20001
144.82001 1.58 848.15002
146.55 1.58 848.10999
155.56 1.71 847.96997
159.83 1.7 847.88
164.86 1.6900001 847.79999
172.64999 1.67 847.65997
182.48 1.8 847.48999
197.02 1.72 847.21997
205.19 1.67 847.08002
209.38 -0.94999999 847.21002
209.41 -1.85 847.29999
-266.81 -0.88999999 855.46002
-267.09 -0.090000004 855.40002
-249.27 0.25999999 855.07001
-236.74001 0.059999999 854.89001
-211.86 0.56999999 854.41998
-208.2 0.33000001 854.37
-187.36 0.63 853.98999
-174.99001 0.41 853.77002
-172.83 0.44999999 853.73999
-147.14999 0.52999997 853.28003
-146.89 0.52999997 853.29999
-143.39999 0.58999997 853.21997
-138.58 0.66000003 853.15002
-135.09 0.72000003 853.04999
-121.7 0.92000002 852.81
-111.71 0.79000002 852.65997
-104.37 0.91000003 852.51001
-94.150002 1.0700001 852.32001
-84.769997 0.91000003 852.19
-82.940002 0.93000001 852.13
-74.370003 1.03 852
-68.129997 1.11 851.85999
-57.049999 1.01 851.71002
-27.780001 1.16 851.17999
-23.51 1.2 851.10999
-20.25 1.24 851.02002
-3.7 1.4 850.71997
16.120001 1.58 850.37
102.56 1.79 848.85999
104.06 1.79 848.84003
107.3 1.8 848.79999
112.29 1.8 848.67999
117.28 1.8200001 848.63
123.99 1.85 848.5
124.73 1.85 848.46997
130.42999 1.85 848.38
130.67999 1.84 848.35999
133.66 1.84 848.34003
134.39999 1.84 848.31
135.64 1.84 848.29999
136.88 1.84 848.26001
140.35001 1.84 848.21997
146.3 1.83 848.09003
153.8 1.96 847.96997
158.82001 1.95 847.88
168.37 1.92 847.71997
172.39 1.91 847.63
175.91 1.9 847.59003
181.45 2.05 847.48999
195.49001 1.98 847.26001
195.74001 1.97 847.21997
199.32001 1.95 847.19
206.72 1.91 847.06
208.72 0.57999998 847.12
209.3 0.30000001 847.14001
208.85001 0.34999999 847.14001
209.38 -0.28999999 847.15997
-268.17999 0.15000001 855.40997
-268.07999 0.16 855.40002
-264.54999 0.22 855.33002
-256.92001 0.38 855.21002
-246.92 0.56999999 855.02002
-241.63 0.47 854.92999
-240.77 0.49000001 854.91998
-232.73 0.41 854.78998
-229.86 0.47 854.71002
-226.14999 0.54000002 854.65997
-223.28 0.60000002 854.59003
-220.42999 0.66000003 854.56
-204.58 0.51999998 854.29999
-201.52 0.58999997 854.22998
-198.46001 0.64999998 854.15997
-192.07001 0.79000002 854.03003
-191.24001 0.81 854.03003
-180.97 0.73000002 853.84998
-178.78999 0.76999998 853.83002
-176.62 0.63 853.81
-166.05 0.86000001 853.59003
-165.78 0.86000001 853.58002
-158.48 1.02 853.45001
-152.78999 1.14 853.33002
-146.61 0.79000002 853.26001
-140.99001 0.88 853.16998
-130.8 1.04 852.95001
-128.92999 1.0700001 852.92999
-121.43 1.1799999 852.78998
-116.16 0.97000003 852.73999
-107.78 1.11 852.58002
-100.7 1.22 852.41998
-97.029999 1.28 852.34998
-95.989998 1.3 852.34998
-95.730003 1.3 852.35999
-81.639999 1.2 852.09003
-73.589996 1.3 851.96997
-69.43 1.35 851.90002
-66.830002 1.38 851.82001
-65.010002 1.4 851.79999
-58.810001 1.29 851.71997
-55.529999 1.28 851.65002
-53 1.3099999 851.60999
-48.459999 1.36 851.53003
-44.41 1.41 851.42999
-40.630001 1.45 851.37
-34.82 1.52 851.28003
-30.040001 1.4 851.21002
-27.27 1.42 851.13
-24.52 1.45 851.09003
-23.51 1.46 851.07001
-9.4700003 1.59 850.82001
103.81 2.04 848.84003
111.54 2.05 848.71002
118.02 2.0599999 848.59003
119.27 2.0599999 848.56
119.52 2.0699999 848.57001
121.75 2.0999999 848.5
141.84 2.0799999 848.15997
147.03999 2.0699999 848.06
147.28999 2.0699999 848.09003
148.28 2.0699999 848.06
153.78999 2.21 847.95001
163.60001 2.1800001 847.78998
184.75999 2.28 847.39001
186.3 2.27 847.38
187.07001 2.27 847.38
202.63 2.1800001 847.10999
207.99001 2.1500001 847.01001
209.00999 2.1500001 847.01001
208.94 1.61 847.02002
209.52 1.4400001 847.03998
209.17 1.29 847.07001
208.81 0.54000002 847.13
209.09 0.57999998 847.12
208.97 0.18000001 847.14001
208.36 -1 847.22998
209.03 -1 847.23999
208.3 -1.42 847.26001
208.52 -1.42 847.26001
209.47 -2.21 847.32001
-266.60001 0.44999999 855.34998
-256.32999 0.64999998 855.19
-244.85001 0.88 854.95001
-238.73 0.79000002 854.85999
-220.42 0.92000002 854.52002
-194.00999 1.01 854.06
-176.34 0.89999998 853.76001
-175.53 0.92000002 853.77002
-171.73 1 853.66998
-166.05 1.11 853.56
-165.50999 1.13 853.54999
-163.34 1.17 853.51001
-155.77 1.33 853.40002
-151.44 1.42 853.31
-150.64 1.14 853.32001
-148.48 1.1799999 853.25
-148.21001 1.1799999 853.25
-147.95 1.03 853.25
-146.08 1.0599999 853.23999
-143.92999 1.09 853.17999
-129.99001 1.3099999 852.91998
-129.46001 1.3200001 852.92999
-123.57 1.41 852.83002
-121.69 1.4400001 852.77002
-120.63 1.25 852.78003
-116.42 1.22 852.70001
-116.15 1.23 852.69
-112.49 1.29 852.63
-103.32 1.4299999 852.46002
-103.06 1.4400001 852.46002
-97.559998 1.53 852.35999
-91.010002 1.63 852.22998
-76.699997 1.51 852.01001
-70.730003 1.58 851.90002
-62.93 1.6799999 851.75
-37.34 1.74 851.28003
-29.530001 1.66 851.15002
-28.280001 1.66 851.15002
-25.52 1.6900001 851.08002
-24.52 1.7 851.09003
-24.27 1.7 851.09003
-24.02 1.7 851.06
-16.99 1.77 850.92999
81.57 2.1700001 849.21997
102.56 2.28 848.82001
103.81 2.29 848.82001
104.8 2.29 848.78003
108.54 2.29 848.72998
112.53 2.3 848.65997
120.76 2.3499999 848.51001
127.95 2.3399999 848.38
138.36 2.3299999 848.20001
140.84 2.3199999 848.15002
153.53999 2.46 847.92999
156.05 2.45 847.90997
167.11 2.4200001 847.69
169.62 2.4100001 847.65997
175.64999 2.4000001 847.53998
177.66 2.3900001 847.53998
184.75999 2.53 847.38
189.10001 2.5 847.32001
193.95 2.48 847.23999
197.78 2.45 847.15997
201.10001 2.4400001 847.10999
201.35001 2.4300001 847.09998
209.02 1.6799999 847.04999
209.78 0.76999998 847.09003
208 -0.28 847.21002
209.42 -0.47999999 847.20001
209.64999 -0.47999999 847.19
209.67999 -2 847.29999
-267.38 -0.31999999 855.45001
-268.07001 0.69 855.35999
-266.89999 0.70999998 855.35999
-265.73001 0.74000001 855.34003
-258.95999 0.87 855.20001
-240.17999 1.03 854.88
-228.13 1.03 854.65002
-225.28 1.09 854.62
-221.55 1.16 854.52002
-218.99001 1.22 854.5
-217.25999 1.25 854.44
-216.7 1.26 854.46002
-209.03 1.09 854.34003
-199.00999 1.16 854.14001
-198.45 1.1799999 854.12
-190.12 1.36 853.97998
-184.28 1.49 853.85999
-156.84 1.5700001 853.37
-154.67999 1.61 853.34003
-152.78999 1.65 853.29999
-149.82001 1.41 853.26001
-149.02 1.4299999 853.25
-134.82001 1.49 853.01001
-124.37 1.65 852.81
-118.25 1.45 852.71002
-114.05 1.52 852.63
-113.79 1.52 852.63
-97.550003 1.78 852.33002
-93.360001 1.85 852.23999
-82.419998 1.7 852.08002
-74.879997 1.79 851.94
-70.980003 1.83 851.88
-53.75 1.8099999 851.57001
-33.810001 2.04 851.21002
-26.030001 1.9299999 851.09998
-18.75 2 850.95001
-18 2.01 850.96002
-11.73 2.0699999 850.82001
72.309998 2.3900001 849.34003
92.330002 2.51 849.01001
115.03 2.55 848.60999
120.75 2.5899999 848.47998
123.23 2.5899999 848.44
129.19 2.5799999 848.35999
129.67999 2.5799999 848.34998
136.87 2.5699999 848.21002
153.53999 2.7 847.92999
167.11 2.6700001 847.67999
184.75999 2.77 847.38
208.42 1.78 847.04999
-251.89999 1.27 855.07001
-243.38 1.4400001 854.90997
-237.57001 1.1 854.79999
-236.14 1.13 854.78998
-226.13 1.33 854.59003
-225.85001 1.34 854.60999
-207.07001 1.25 854.28998
-194.28999 1.53 854.03998
-186.5 1.7 853.87
-178.23 1.5599999 853.77002
-177.14999 1.4 853.76001
-174.16 1.46 853.66998
-163.07001 1.7 853.47998
-154.67999 1.87 853.32001
-152.24001 1.92 853.28003
-140.17999 1.67 853.09998
-134.81 1.75 852.98999
-132.39999 1.79 852.92999
-130.25 1.8200001 852.89001
-129.45 1.83 852.88
-124.09 1.91 852.78003
-117.98 1.71 852.69
-114.05 1.77 852.62
-105.14 1.91 852.44
-104.89 1.92 852.46997
-101.48 1.97 852.38
-100.95 1.98 852.38
-98.860001 2.01 852.34003
-97.550003 2.04 852.31
-97.029999 2.04 852.32001
-96.5 2.05 852.28998
-95.980003 2.0599999 852.28998
-94.150002 2.0899999 852.26001
-93.360001 2.0999999 852.25
-83.980003 1.9299999 852.10999
-81.379997 1.96 852.04999
-77.480003 2.01 851.97998
-76.18 2.02 851.94
-70.199997 2.0999999 851.83002
-64.220001 2.1700001 851.71997
-59.060001 2.04 851.65997
-57.029999 2.02 851.59998
-50.73 2.0899999 851.52002
-41.880001 2.1900001 851.33002
-38.599998 2.23 851.27002
-37.34 2.25 851.27002
-29.290001 2.1600001 851.12
-18.25 2.26 850.92999
10.11 2.54 850.40997
98.309998 2.77 848.84998
101.31 2.77 848.82001
109.04 2.79 848.69
118.51 2.8 848.5
128.69 2.8299999 848.34003
129.19 2.8299999 848.34998
132.89999 2.8199999 848.26001
140.84 2.8199999 848.14001
147.28 2.8099999 848.02002
151.52 2.95 847.91998
154.03999 2.95 847.89001
168.86 2.9100001 847.64001
171.13 2.9000001 847.60999
173.64 2.9000001 847.57001
176.14999 2.8900001 847.51001
179.16 2.8800001 847.47998
184.25 3.02 847.35999
204.66 2.9100001 847
208.48 2.8900001 846.94
208.25999 0.87 847.10999
-267.31 1.23 855.32001
-261.88 1.35 855.21002
-250.72 1.5599999 855.01001
-241.62 1.52 854.87
-224.39999 1.63 854.53003
-208.17999 1.63 854.27002
-186.77 1.95 853.85999
-185.94 1.97 853.84003
-182.61 2.04 853.81
-177.14 1.66 853.73999
-174.16 1.72 853.67999
-151.42999 2.2 853.23999
-149.00999 1.9400001 853.21002
-148.2 1.95 853.20001
-142.58 1.88 853.09998
-141.23 1.91 853.07001
-133.47 2.03 852.95001
-127.58 2.1199999 852.84998
-119.56 2.03 852.70001
-118.51 2.05 852.67999
-114.05 2.03 852.60999
-112.21 2.0599999 852.56
-111.17 2.0699999 852.53998
-105.67 2.1600001 852.46002
-105.14 2.1700001 852.44
-100.96 2.24 852.38
-94.93 2.3299999 852.23999
-93.099998 2.3599999 852.21997
-87.089996 2.1500001 852.10999
-79.82 2.23 852.01001
-77.470001 2.26 851.94
-76.699997 2.27 851.95001
-73.580002 2.3099999 851.88
-72.019997 2.3299999 851.84998
-65.519997 2.4100001 851.73999
-59.310001 2.29 851.62
-39.360001 2.48 851.27002
-37.849998 2.49 851.26001
-34.82 2.53 851.19
-34.57 2.53 851.21002
-31.280001 2.5699999 851.13
-29.290001 2.4100001 851.09998
-23.52 2.46 851.02002
72.309998 2.8800001 849.32001
102.05 3.02 848.78003
104.55 3.02 848.73999
106.54 3.03 848.70001
113.77 3.04 848.59003
117.01 3.04 848.53003
117.26 3.04 848.52002
117.51 3.04 848.53003
119.01 3.05 848.5
121.24 3.0799999 848.45001
126.7 3.0799999 848.35999
127.69 3.0799999 848.34998
127.94 3.0699999 848.33002
133.89 3.0699999 848.25
161.83 3.1700001 847.75
163.34 3.1700001 847.72998
165.60001 3.1600001 847.69
168.61 3.1600001 847.63
192.41 3.22 847.21002
198.53 3.1900001 847.09998
200.83 3.1800001 847.08002
202.87 3.1700001 847.03003
206.44 3.1500001 846.96002
208.95 1.77 847.02002
208.81 1.48 847.03003
208.25999 1.1 847.08002
207.24001 -0.14 847.19
208.14 -0.14 847.20001
-253.94 1.77 855.03998
-228.11 1.8200001 854.58002
-215.82001 2.0699999 854.35999
-214.10001 2.1099999 854.32001
-202.89 1.86 854.15997
-201.22 1.9 854.13
-194.83 2.04 854.02002
-192.33 2.0899999 853.96002
-185.38 2.24 853.82001
-183.44 2.29 853.79999
-182.88 2.3 853.78003
-181.77 2.3199999 853.75
-150.89 2.1700001 853.22998
-136.41 2.24 852.96997
-135.61 2.25 852.97998
-133.47 2.28 852.92999
-115.1 2.27 852.62
-108.54 2.3699999 852.46997
-103.31 2.45 852.38
-102 2.47 852.38
-99.639999 2.51 852.32001
-96.239998 2.5699999 852.26001
-92.830002 2.6199999 852.19
-88.660004 2.4300001 852.15002
-86.57 2.4100001 852.09998
-85.269997 2.4200001 852.07001
-84.230003 2.4300001 852.04999
-82.150002 2.46 852.02002
-74.089996 2.5599999 851.88
-70.199997 2.5999999 851.81
-67.339996 2.6400001 851.77002
-62.66 2.6900001 851.67999
-61.099998 2.71 851.63
-59.310001 2.54 851.62
-52.740002 2.5699999 851.52002
-51.73 2.5899999 851.47998
-47.439999 2.6300001 851.40002
-40.119999 2.72 851.28003
-39.860001 2.72 851.27002
-28.540001 2.6600001 851.09003
-26.530001 2.6800001 851.03003
-21.51 2.73 850.95001
-18.25 2.76 850.88
28.91 3.1400001 850.03998
85.82 3.1800001 849.06
101.8 3.26 848.76001
103.3 3.27 848.76001
109.03 3.28 848.64001
113.77 3.28 848.54999
120.75 3.3299999 848.45001
124.22 3.3299999 848.39001
132.14999 3.3099999 848.22998
143.06 3.3 848.04999
148.02 3.3 847.95001
149.50999 3.3 847.95001
164.59 3.4100001 847.67999
173.38 3.3900001 847.51001
199.55 3.4300001 847.06
201.33 3.4200001 847.02002
203.37 3.4100001 846.98999
203.89 3.4100001 847
208.73 3.3800001 846.91998
209.69 2 847.01001
209.56 1.73 847.01001
208.66 0.88 847.08002
209.36 0.87 847.07001
-267.41 0.73000002 855.34998
-266.82999 0.97000003 855.34998
-265.70001 1.8099999 855.25
-259.23001 1.9299999 855.14001
-240.44 2.0799999 854.79999
-224.96001 2.1500001 854.5
-212.66 2.4000001 854.27002
-209.28999 2.1300001 854.23999
-207.89 2.02 854.23999
-207.05 2.03 854.20001
-205.94 2.0599999 854.20001
-199.27 2.2 854.06
-191.77 2.3699999 853.92999
-189.27 2.4200001 853.89001
-177.41 2.1700001 853.71002
-176.05 2.2 853.66998
-149.53999 2.4400001 853.19
-147.67 2.3199999 853.16998
-132.92999 2.55 852.89001
-119.56 2.54 852.67999
-109.6 2.6099999 852.5
-106.97 2.6500001 852.41998
-106.19 2.6600001 852.42999
-99.379997 2.77 852.28998
-97.809998 2.8 852.27002
-91.260002 2.9000001 852.14001
-82.150002 2.71 852.01001
-78.510002 2.76 851.92999
-78.25 2.76 851.92999
-61.360001 2.96 851.62
-60.580002 2.97 851.59003
-56.02 2.79 851.53998
-40.869999 2.96 851.25
-40.619999 2.96 851.28003
-40.369999 2.97 851.27002
-34.82 3.03 851.15997
-22.77 2.97 850.95001
-22.26 2.97 850.92999
-20.26 2.99 850.90997
209.44 3.0799999 846.90997
208.52 -0.14 847.17999
209.99001 -0.33000001 847.15002
-266.82999 1.24 855.29999
-265.69 2.0699999 855.21997
-245.39999 2.47 854.84003
-224.96001 2.4100001 854.5
-209.28 2.3900001 854.21002
-207.05 2.3 854.21002
-200.64999 2.4300001 854.06
-184.82001 2.78 853.78998
-175.24001 2.48 853.65002
-172.53 2.53 853.59998
-157.91 2.8399999 853.31
-156.56 2.8699999 853.28998
-145.52 2.6099999 853.12
-135.34 2.77 852.94
-121.68 2.98 852.66998
-115.88 2.76 852.58002
-113.52 2.8 852.53998
-110.9 2.8399999 852.48999
-104.61 2.9400001 852.37
-100.95 3 852.31
-99.639999 3.02 852.28003
-97.010002 3.0599999 852.21997
-96.75 3.0699999 852.21002
-95.709999 3.0799999 852.20001
-77.470001 3.02 851.89001
-72.269997 3.0799999 851.78998
-67.339996 3.1400001 851.72998
-65 3.1700001 851.69
-51.73 3.0899999 851.46002
-47.689999 3.1300001 851.35999
-38.599998 3.24 851.21002
-32.040001 3.3099999 851.08002
-31.780001 3.3199999 851.07001
-31.280001 3.3199999 851.07001
-21.76 3.23 850.90997
-15.75 3.29 850.81
208.66 2.97 846.92999
209.67999 2.48 846.96997
209.64 0.88999999 847.06
-266.16 2.3199999 855.22998
-265.69 2.3399999 855.22998
-263.63 2.3800001 855.17999
-262.45001 2.4000001 855.15002
-257.45001 2.5 855.04999
-253.03 2.5899999 854.96002
-252.74001 2.5899999 854.95001
-251.56 2.6199999 854.94
-236.39999 2.4400001 854.71002
-228.67999 2.5999999 854.54999
-210.69 2.6300001 854.22998
-191.21001 2.9000001 853.89001
-190.92999 2.9100001 853.89001
-183.14999 3.0799999 853.72998
-181.75999 3.1099999 853.71002
-177.12 2.6900001 853.63
-168.73 2.8699999 853.48999
-143.37 2.9000001 853.04999
-132.64999 3.0699999 852.84003
-129.98 3.1099999 852.82001
-126.49 3.1600001 852.72998
-125.15 3.1800001 852.71002
-124.09 3.2 852.71002
-111.16 3.0899999 852.46002
-105.66 3.1800001 852.38
-98.059998 3.3 852.23999
-97.540001 3.3099999 852.21997
-96.75 3.3199999 852.21002
-91.510002 3.4100001 852.09998
-90.730003 3.4200001 852.09003
-84.739998 3.1900001 852.01001
-76.940002 3.28 851.85999
-70.970001 3.3499999 851.77002
-65.510002 3.4200001 851.65002
-48.189999 3.3800001 851.34998
-43.900002 3.4300001 851.28998
-42.889999 3.4400001 851.27002
-29.290001 3.4200001 851.02002
209.78 2.4100001 846.96997
209.44 2.01 847.01001
208.72 1.12 847.06
209.41 1.11 847.07001
-266.26001 1.77 855.25
-266.26999 2.5999999 855.21997
-264.5 2.6300001 855.15997
-262.14999 2.6800001 855.14001
-261.26001 2.6900001 855.09003
-234.96001 2.73 854.65002
-233.82001 2.76 854.64001
-232.96001 2.77 854.63
-229.52 2.8399999 854.53998
-228.66 2.8599999 854.52002
-227.24001 2.8900001 854.51001
-222.66 2.99 854.41998
-222.10001 3 854.41998
-220.64999 3.03 854.35999
-215.50999 3.1300001 854.28003
-205.64999 2.8499999 854.13
-190.64 3.1700001 853.83002
-183.14999 3.3399999 853.71997
-180.94 3.0599999 853.70001
